# .PCD v0.7 - Point Cloud Data file format
VERSION 0.7
FIELDS x y z rgb
SIZE 4 4 4 4
TYPE F F F F
COUNT 1 1 1 1
WIDTH 985
HEIGHT 1
VIEWPOINT 0 0 0 1 0 0 0
POINTS 985
DATA ascii
0.73658246 0.45366946 0.033310331 5.8933246e-39
0.738437 0.44831371 0.036308277 5.893326e-39
0.741225 0.44817263 0.036430214 5.8929701e-39
0.74401307 0.44803166 0.036552206 5.6171063e-39
0.74680114 0.44789064 0.036674131 5.3412397e-39
0.7495892 0.44774973 0.036796063 4.4178597e-39
0.75237721 0.44760871 0.036918055 3.4973173e-39
0.77087307 0.52823746 -0.007484748 3.9589708e-39
0.77383786 0.52808762 -0.0073550763 4.4135829e-39
0.77680266 0.52793759 -0.007225397 6.5517261e-39
0.77976751 0.52778774 -0.0070957216 8.5979652e-39
0.78273231 0.52763784 -0.0069660405 1.089137e-38
0.7856971 0.52748793 -0.0068363091 1.3197273e-38
0.78866196 0.52733797 -0.006706628 1.3374818e-38
0.79162675 0.52718806 -0.0065769525 1.3460164e-38
0.79459155 0.5270381 -0.0064472733 1.2352365e-38
0.7962544 0.52081484 -0.0029714769 1.1243891e-38
0.79789054 0.51459271 0.00050310139 1.0787233e-38
0.8008287 0.51444423 0.00063161086 1.0421317e-38
0.80242491 0.50822431 0.0041045239 1.0420231e-38
0.80263931 0.49593508 0.01092 1.0418779e-38
0.80436456 0.49058554 0.013912397 1.0325492e-38
0.80725151 0.49043956 0.014038642 1.0324773e-38
0.80874318 0.48422492 0.017506968 1.0508084e-38
0.81161678 0.48407954 0.017632663 1.0691394e-38
0.8132717 0.47873375 0.020621907 1.078251e-38
0.81469882 0.47252226 0.024087358 1.0966176e-38
0.81754768 0.47237819 0.024211966 1.1336025e-38
0.82039654 0.47223425 0.024336562 1.1799854e-38
0.82324547 0.47209018 0.024461225 1.2077859e-38
0.824606 0.46588212 0.027923796 1.2354099e-38
0.82744163 0.46573874 0.028047841 1.2814369e-38
0.83027714 0.46559528 0.028171897 1.3274989e-38
0.83311278 0.46545193 0.028295942 1.3644491e-38
0.83594835 0.46530858 0.02841993 1.4014711e-38
0.83878392 0.46516508 0.028543986 1.4289866e-38
0.84161949 0.46502173 0.028668035 1.4566087e-38
0.84603643 0.47093767 0.025458172 1.4749396e-38
0.84888536 0.4707936 0.025582772 1.4933425e-38
0.85173422 0.47064954 0.025707379 1.5026694e-38
0.85620445 0.4765628 0.022499904 1.5027048e-38
0.86046773 0.48160928 0.019769475 1.5119237e-38
0.86334133 0.48146394 0.019895174 1.521179e-38
0.86787611 0.48737395 0.016690508 1.5117443e-38
0.87076306 0.48722795 0.016816765 1.4931595e-38
0.87678444 0.49832481 0.01076023 1.4379839e-38
0.88309836 0.51028407 0.0042302897 1.382992e-38
0.88775098 0.51618809 0.0010307776 1.4288756e-38
0.89243025 0.52209067 -0.0021675723 1.4750536e-38
0.89713609 0.52799189 -0.0053647486 1.5954174e-38
0.90011424 0.52784133 -0.00523452 1.706193e-38
0.90309227 0.52769059 -0.0051042242 1.6969724e-38
0.90607047 0.52754003 -0.004973934 1.687718e-38
0.91084284 0.53343809 -0.0081683043 1.687683e-38
0.91383427 0.53328681 -0.0080374582 1.6876112e-38
0.91682565 0.53313565 -0.0079066204 1.6784275e-38
0.91981709 0.53298426 -0.0077757174 1.6692441e-38
0.92280853 0.53283304 -0.0076448722 1.6509129e-38
0.92579997 0.53268182 -0.0075140363 1.641837e-38
0.92879134 0.53253049 -0.0073831892 1.6784994e-38
0.93178266 0.53237921 -0.0072523458 1.724344e-38
0.93477422 0.53222799 -0.0071215099 1.4756333e-38
0.9377656 0.53207672 -0.0069906032 1.2360283e-38
0.93882966 0.52588356 -0.0035409899 1.01375e-38
0.94180775 0.52573293 -0.0034106998 7.833002e-39
0.94283199 0.51954204 3.7117861e-05 7.0975977e-39
0.94579685 0.51939207 0.00016679894 6.2671294e-39
1.0135454 0.54753941 -0.014371152 4.1466411e-39
1.0143452 0.5413596 -0.010933127 3.1285936e-39
1.0173651 0.54120696 -0.010801049 6.9211462e-39
1.0178024 0.5341686 -0.0068926727 1.0710156e-38
1.020807 0.53401661 -0.0067612091 1.3937749e-38
1.0238118 0.53386474 -0.0066298163 1.724849e-38
1.0245167 0.52768993 -0.0031959256 1.697083e-38
1.027508 0.52753878 -0.003065086 1.6786803e-38
1.0304995 0.52738744 -0.0029342407 1.7063028e-38
1.0334909 0.52723616 -0.0028033974 1.7339589e-38
1.0364825 0.52708495 -0.0026725596 1.4755615e-38
1.0394737 0.52693367 -0.0025417143 1.2268201e-38
1.0424651 0.52678233 -0.0024108691 1.5035857e-38
1.0454565 0.52663106 -0.0022799661 1.7798092e-38
1.048448 0.52647984 -0.0021491284 1.7613339e-38
1.0514394 0.5263285 -0.0020182831 1.7337113e-38
1.0544308 0.52617723 -0.0018874379 1.7337467e-38
1.0598683 0.53204149 -0.0050525973 1.7337826e-38
1.0628731 0.53188944 -0.004921197 1.724563e-38
1.0658779 0.53173757 -0.0047897426 1.7245989e-38
1.0717237 0.53845823 -0.0084232818 1.7154512e-38
1.0747435 0.53830546 -0.008291197 1.7062671e-38
1.0777637 0.53815275 -0.008159061 1.71545e-38
1.0807836 0.53800011 -0.0080269855 1.7337816e-38
1.078362 0.52496719 -0.00084064249 1.3378848e-38
1.0839061 0.53082585 -0.0040011303 9.4262741e-39
1.084345 0.52466452 -0.00057895388 1.0524292e-38
1.0873365 0.52451336 -0.0004480565 1.162027e-38
1.0903277 0.52436209 -0.0003172094 1.4019522e-38
1.0959251 0.53021812 -0.0034754304 1.6506953e-38
1.0989298 0.53006625 -0.003343978 1.5768303e-38
1.1019344 0.5299142 -0.0032125143 1.5125092e-38
1.1049391 0.52976233 -0.0030811215 1.4388251e-38
1.1079438 0.5296104 -0.002949669 1.3742555e-38
1.1082762 0.52345449 0.00046790112 1.3745806e-38
1.1139534 0.52930653 -0.0026868144 1.3843691e-38
1.1169581 0.52915466 -0.0025553619 1.051317e-38
1.1199628 0.52900267 -0.0024239691 7.2871444e-39
1.1229675 0.52885067 -0.0022925092 1.0888154e-38
1.1291023 0.53555673 -0.005913428 1.4581294e-38
1.1321222 0.53540397 -0.0057812845 1.5129784e-38
1.1319816 0.52839476 -0.0018982021 1.577585e-38
1.1349864 0.52824295 -0.0017668093 1.2086992e-38
1.1379911 0.52809101 -0.0016353549 8.5014662e-39
1.1498126 0.54678792 -0.011813569 9.0485359e-39
1.1528592 0.5466339 -0.011680268 9.5133536e-39
1.1711993 0.55886185 -0.018170238 5.9898181e-39
1.1742743 0.5587064 -0.018035755 5.1626162e-39
1.1744508 0.5525583 -0.014624975 4.4246546e-39
1.1683613 0.53357148 -0.0041961027 3.130299e-39
1.1713812 0.53341883 -0.0040640263 1.8371233e-39
1.1710429 0.52641964 -0.00018959027 2.4057688e-39
1.1740477 0.52626765 -5.8128498e-05 2.9790863e-39
1.180441 0.53296065 -0.003667728 6.2909669e-39
1.183461 0.53280801 -0.0035356516 9.5231263e-39
1.1924641 0.54463124 -0.0099478541 1.1535954e-38
1.1955107 0.54447716 -0.0098146126 1.3460561e-38
1.2020066 0.55116498 -0.013419633 1.4106643e-38
1.2080997 0.55699587 -0.016556114 1.4742667e-38
1.2081298 0.55085528 -0.013151777 1.4935656e-38
1.2111917 0.55070037 -0.013017845 1.5211215e-38
1.2107433 0.54370695 -0.0091483351 1.4942578e-38
0.0031550191 0.48931307 -0.0011772728 1.4017696e-38
0.0035715327 0.49542445 -0.0045735156 1.4016976e-38
0.0043532513 0.50064129 -0.0074660787 1.3925499e-38
0.0071774758 0.50049847 -0.0073425109 1.3834022e-38
0.010001581 0.5003556 -0.0072190026 1.3649992e-38
0.012825806 0.50021285 -0.0070954366 1.3833305e-38
0.015649967 0.50007004 -0.0069719302 1.3925495e-38
0.018474128 0.49992725 -0.0068483641 1.3741459e-38
0.0212983 0.49978435 -0.0067248484 1.3557065e-38
0.024122469 0.49964154 -0.006601342 1.3464865e-38
0.026946623 0.49949878 -0.006477776 1.3280485e-38
0.029770732 0.49935594 -0.0063542677 1.2817372e-38
0.032595012 0.49921316 -0.0062307017 1.2356399e-38
0.035419233 0.49907035 -0.0061071953 1.2446441e-38
0.040137522 0.49357539 -0.0029740641 1.2541875e-38
0.045146953 0.48718959 0.00065957848 1.2451487e-38
0.047946494 0.48704809 0.00078198966 1.2359611e-38
0.052605946 0.48155627 0.003912448 1.2176975e-38
0.053545389 0.48676506 0.0010269294 1.1898277e-38
0.058182158 0.48127422 0.0041563744 1.2639097e-38
0.059144299 0.4864819 0.0012718188 1.3282673e-38
0.061943777 0.48634034 0.0013942877 1.401629e-38
0.062639743 0.49243757 -0.0019897418 1.4662351e-38
0.063660815 0.49764231 -0.0048718182 1.4848159e-38
0.066484988 0.49749938 -0.0047483044 1.5030389e-38
0.06930922 0.49735656 -0.0046247384 1.4844561e-38
0.072133429 0.49721381 -0.0045012301 1.4659818e-38
0.073211521 0.50241554 -0.0073807081 1.465803e-38
0.076047122 0.50227219 -0.0072567211 1.4567623e-38
0.078882731 0.50212872 -0.0071326671 1.4750928e-38
0.079721078 0.50821865 -0.010510514 1.4938566e-38
0.082570046 0.50807464 -0.010385912 1.494397e-38
0.085418947 0.5079307 -0.010261255 1.485034e-38
0.086310513 0.51401794 -0.013636711 1.4942176e-38
0.089172713 0.51387328 -0.01351156 1.5033288e-38
0.093965545 0.50749844 -0.0098874457 1.4849254e-38
0.096814446 0.50735438 -0.0097628431 1.4572667e-38
0.097759232 0.513439 -0.013135968 1.4479753e-38
0.10251202 0.50706631 -0.0095135747 1.4296435e-38
0.10536098 0.50692219 -0.0093889721 1.4112758e-38
0.10820996 0.50677812 -0.0092643695 1.3836172e-38
0.11290954 0.50040805 -0.005644246 1.3835451e-38
0.11574513 0.50026476 -0.0055201994 1.3742174e-38
0.11858068 0.5001213 -0.0053962031 1.3648898e-38
0.12141629 0.49997792 -0.0052721547 1.3463425e-38
0.12425189 0.49983457 -0.0051481081 1.3186835e-38
0.1253031 0.50591379 -0.0085166292 1.2819129e-38
0.12992303 0.49954781 -0.0049000671 1.2453215e-38
0.13100091 0.50562561 -0.0082674222 1.1990446e-38
0.13384987 0.50548166 -0.0081428252 1.1623098e-38
0.13669872 0.5053376 -0.008018164 1.1160328e-38
0.14126532 0.49897426 -0.0044039274 1.0974856e-38
0.14239642 0.50504947 -0.0077689569 1.0698272e-38
0.14524533 0.5049054 -0.0076443525 1.0513522e-38
0.14809416 0.50476134 -0.0075197481 1.0329138e-38
0.15094301 0.50461721 -0.0073950859 1.0328782e-38
0.15379187 0.50447315 -0.0072704824 1.023659e-38
0.15664077 0.50432909 -0.0071458789 1.0144398e-38
0.15948968 0.50418502 -0.0070212753 1.0052199e-38
0.16233858 0.50404096 -0.0068966141 1.0051479e-38
0.16518752 0.50389689 -0.0067720069 1.0051836e-38
0.16803631 0.50375283 -0.0066474052 9.9596406e-39
0.17088516 0.50360876 -0.0065228017 9.8681624e-39
0.17373407 0.5034647 -0.0063981982 9.7763269e-39
0.17658299 0.50332069 -0.0062735369 9.5926545e-39
0.17943183 0.50317675 -0.0061489409 9.500819e-39
0.18228064 0.50303268 -0.0060243374 9.409345e-39
0.18512955 0.50288862 -0.0058997339 9.2256783e-39
0.18947001 0.4965367 -0.0022953143 9.0420101e-39
0.19230561 0.4963932 -0.0021713199 9.2249678e-39
0.19367625 0.50245637 -0.0055258637 9.3171578e-39
0.19922104 0.49078727 0.0010578828 9.4093478e-39
0.2020452 0.49064448 0.0011814469 9.5011721e-39
0.2331669 0.36729941 0.070344552 1.0052534e-38
0.23572686 0.36716995 0.070456535 1.0599937e-38
0.23728795 0.37147143 0.068085916 8.2947018e-39
0.23985749 0.37134144 0.068198323 5.9963033e-39
0.24242701 0.37121156 0.068310708 5.9019566e-39
0.24499649 0.37108156 0.068423107 5.7146885e-39
0.24756598 0.37095174 0.068535492 5.070754e-39
0.25013551 0.37082174 0.068647899 4.4264608e-39
0.25270498 0.37069187 0.068760291 3.7825277e-39
0.25527453 0.37056187 0.068872683 3.1364409e-39
0.257844 0.37043205 0.068985075 2.5829084e-39
0.26041353 0.37030199 0.069097474 1.9368271e-39
0.26189831 0.37548321 0.066235758 1.7527932e-39
0.26447925 0.37535265 0.066348635 1.4762091e-39
0.26706019 0.37522215 0.066461578 1.5673257e-39
0.2696411 0.37509158 0.066574454 1.5673257e-39
0.27222198 0.37496114 0.066687331 1.5666068e-39
0.27480286 0.3748306 0.066800207 1.5673257e-39
0.27653691 0.37912321 0.064437211 1.5680446e-39
0.27912733 0.37899217 0.064550497 1.5673257e-39
0.28171772 0.37886113 0.06466379 1.4747713e-39
0.28430817 0.37873021 0.064777136 1.3829358e-39
0.28689861 0.37859917 0.064890429 1.4747713e-39
0.289489 0.37846825 0.065003715 1.5669656e-39
0.29207939 0.3783372 0.065117061 1.4754888e-39
0.29466981 0.37820628 0.065230355 1.3832946e-39
0.29648939 0.38249451 0.062871061 1.3829344e-39
0.29908931 0.38236296 0.062984772 1.3829358e-39
0.30244103 0.37781328 0.06557028 1.3825771e-39
0.30428904 0.38210002 0.063212238 1.3829358e-39
0.30688903 0.38196859 0.063325934 1.3829344e-39
0.30948892 0.38183707 0.063439697 1.3829344e-39
0.31208885 0.38170567 0.063553393 1.3829344e-39
0.31468874 0.38157406 0.063667156 1.3829358e-39
0.31728867 0.38144273 0.063780852 1.3829358e-39
0.3190662 0.3866092 0.060931895 1.3832974e-39
0.32167748 0.38647711 0.061046075 1.7510009e-39
0.32428879 0.38634509 0.061160322 2.1201422e-39
0.32690009 0.38621306 0.061274562 2.5800427e-39
0.32951143 0.38608098 0.061388753 2.9491812e-39
0.33212274 0.3859489 0.061502993 3.0424544e-39
0.33473402 0.38581693 0.061617233 3.0424544e-39
0.33734536 0.38568485 0.06173142 3.1342913e-39
0.33995664 0.38555276 0.061845668 3.13465e-39
0.34256798 0.38542074 0.061959907 3.13465e-39
0.34517932 0.38528869 0.062074088 3.0424558e-39
0.3477906 0.3851566 0.062188335 3.0424558e-39
0.35040191 0.38502464 0.062302575 2.9506203e-39
0.35301322 0.38489255 0.062416766 3.0424558e-39
0.35562459 0.38476047 0.062531009 3.0424558e-39
0.35769311 0.38903618 0.060182616 3.0424572e-39
0.36031392 0.38890359 0.060297217 3.0424572e-39
0.36293474 0.38877115 0.06041187 3.0424572e-39
0.36555552 0.38863856 0.060526524 3.0424572e-39
0.36817634 0.38850605 0.060641181 3.0424572e-39
0.37079713 0.38837349 0.060755778 3.0424558e-39
0.37341797 0.38824102 0.060870428 3.1342913e-39
0.37603882 0.38810843 0.060985088 3.13465e-39
0.37865961 0.38797593 0.061099742 3.2264869e-39
0.38128042 0.38784334 0.061214339 3.2264869e-39
0.38390127 0.38771093 0.061328989 3.2268456e-39
0.38599619 0.39286134 0.05849389 3.1350087e-39
0.38862839 0.39272824 0.058609027 3.1350087e-39
0.39126059 0.39259508 0.058724169 3.0428145e-39
0.39348316 0.39686301 0.0563825 3.0424558e-39
0.39612484 0.39672932 0.056498051 3.0424544e-39
0.39876652 0.39659572 0.056613605 3.0424544e-39
0.40140826 0.39646223 0.056729149 3.0424558e-39
0.40404999 0.39632854 0.056844708 3.1342941e-39
0.4066917 0.39619505 0.056960251 3.1342927e-39
0.40891016 0.40133902 0.054130632 3.1346514e-39
0.41156328 0.40120497 0.05424666 3.1342927e-39
0.4142164 0.40107077 0.054362755 3.1342927e-39
0.41686952 0.40093657 0.054478783 3.0428159e-39
0.41952267 0.40080237 0.054594826 3.1346528e-39
0.42217577 0.4006682 0.054710913 3.1346528e-39
0.42482895 0.40053412 0.054826941 3.2264883e-39
0.4271386 0.40567371 0.052001294 3.2264883e-39
0.43013513 0.40026581 0.055059072 3.2264883e-39
0.43278825 0.40013158 0.0551751 3.1346514e-39
0.43513224 0.40526956 0.052350957 3.1346514e-39
0.43779671 0.40513483 0.052467469 3.1350115e-39
0.44046119 0.40499994 0.052584056 3.2268484e-39
0.44312572 0.40486521 0.052700628 3.226847e-39
0.44579029 0.40473044 0.05281714 3.226847e-39
0.44845483 0.40459573 0.052933715 3.1350101e-39
0.45111939 0.40446103 0.053050227 3.13465e-39
0.45378387 0.40432626 0.05316681 3.0424558e-39
0.45626676 0.40858099 0.050836526 3.0424572e-39
0.45894074 0.40844572 0.050953515 3.0428159e-39
0.46161479 0.40831053 0.051070441 3.1346528e-39
0.46428883 0.40817526 0.051187426 3.1346514e-39
0.46679044 0.41330513 0.048370086 3.1346486e-39
0.46947592 0.41316941 0.048487552 3.0428131e-39
0.47216141 0.41303363 0.048605021 3.13465e-39
0.47484675 0.41289783 0.048722491 3.1350087e-39
0.47765893 0.40749922 0.051772233 3.2268456e-39
0.48021767 0.41262627 0.048957426 3.2268456e-39
0.48290303 0.41249037 0.049074903 3.2268456e-39
0.48558852 0.41235462 0.049192373 3.2268456e-39
0.48827392 0.41221881 0.049309839 3.2268456e-39
0.49095929 0.412083 0.049427312 3.1350101e-39
0.49364477 0.41194728 0.049544778 3.226847e-39
0.49628326 0.41707003 0.046733472 3.226847e-39
0.4989801 0.41693375 0.046851479 3.3186839e-39
0.50167698 0.41679734 0.04696944 3.3190413e-39
0.50437367 0.41666099 0.04708739 3.3190413e-39
0.5070706 0.41652465 0.0472054 3.3190413e-39
0.50976741 0.41638815 0.04732335 3.3186825e-39
0.51246428 0.41625184 0.0474413 3.2275645e-39
0.5151611 0.41611549 0.04755925 3.3197601e-39
0.51785791 0.41597903 0.047677208 3.4115956e-39
0.52055478 0.41584271 0.047795217 3.4119544e-39
0.52325159 0.41570637 0.04791316 3.4115956e-39
0.52594846 0.41557002 0.04803111 3.3201203e-39
0.52873516 0.42068547 0.045226313 3.2279232e-39
0.53144342 0.42054847 0.045344811 3.2275631e-39
0.53426433 0.42566225 0.042541452 3.2271988e-39
0.53698397 0.42552471 0.04266043 3.2271946e-39
0.53970361 0.4253872 0.042779353 3.2268414e-39
0.54242325 0.42524964 0.042898331 3.3186825e-39
0.54514289 0.42511201 0.043017305 3.4112369e-39
0.54786253 0.42497459 0.043136276 3.4119572e-39
0.55040103 0.41958979 0.046174031 3.3197615e-39
0.55310935 0.41945291 0.046292517 3.3197615e-39
0.55581754 0.4193159 0.046411011 3.3197615e-39
0.55874115 0.42442453 0.043612119 3.3201217e-39
0.56146079 0.42428699 0.043731097 3.2282876e-39
0.56441844 0.42939374 0.04093378 3.1364549e-39
0.56714958 0.4292556 0.041053239 2.9527825e-39
0.5698806 0.42911744 0.041172698 3.228289e-39
0.57261163 0.4289794 0.041292153 3.4115984e-39
0.57562643 0.43408322 0.03849737 3.3201203e-39
0.5783689 0.43394458 0.038617309 3.1360948e-39
0.58080477 0.42856506 0.04165053 3.3204874e-39
0.58353585 0.42842698 0.041769993 3.5030836e-39
0.58626688 0.42828888 0.041889448 4.0523043e-39
0.5889979 0.42815074 0.04200897 4.5161453e-39
0.59172893 0.42801264 0.042128421 4.7026862e-39
0.59445995 0.42787454 0.04224788 4.8892158e-39
0.59719104 0.42773646 0.042367339 4.4303859e-39
0.60030842 0.43283507 0.039577018 3.8830303e-39
0.60305089 0.43269643 0.03969695 6.6507209e-39
0.6100896 0.48753184 0.009274519 9.4111527e-39
0.61295182 0.48738706 0.0093997391 8.8554636e-39
0.61919785 0.52824575 -0.013252872 8.2889551e-39
0.61764163 0.47488517 0.016433861 4.5010295e-39
0.62047726 0.47474182 0.01655791 6.4681275e-40
0.62750846 0.52169299 -0.0094748717 1.5719892e-39
0.63044661 0.52154446 -0.0093463631 2.4857129e-39
0.63338488 0.52139598 -0.0092178546 1.7474738e-39
0.63632309 0.52124727 -0.0090892799 1.0293322e-39
0.63866413 0.51499665 -0.0055723609 4.9901373e-39
0.64158905 0.51484865 -0.0054444568 8.8576398e-39
0.64389026 0.5086 -0.0019293213 8.9516347e-39
0.64616489 0.5023526 0.0015846556 9.0437925e-39
0.64850575 0.49697787 0.0046137618 8.1189453e-39
0.65016019 0.48550561 0.011027296 7.1933863e-39
0.65234542 0.47926265 0.014537373 7.4641998e-39
0.65519434 0.47911856 0.014661978 7.7440153e-39
0.65733969 0.4728778 0.018170327 7.8387263e-39
0.6601752 0.47273436 0.018294372 7.8340642e-39
0.66301084 0.47259089 0.018418368 7.4599077e-39
0.66584635 0.47244751 0.018542416 7.0936405e-39
0.6680333 0.46708074 0.021564793 6.9103268e-39
0.67085755 0.46693793 0.021688301 6.7262985e-39
0.67368168 0.46679512 0.021811869 6.8188543e-39
0.67650586 0.46665236 0.021935374 6.8188543e-39
0.67932999 0.46650952 0.022058878 7.0007316e-39
0.68144846 0.461146 0.025078312 7.1843998e-39
0.68426132 0.46100372 0.025201339 7.3651981e-39
0.68707407 0.46086153 0.025324423 7.5520851e-39
0.68988681 0.46071935 0.025447454 7.6442667e-39
0.69269961 0.46057707 0.025570478 7.6457016e-39
0.69551235 0.46043491 0.025693499 7.7382546e-39
0.69832516 0.46029264 0.025816526 7.7382476e-39
0.7011379 0.46015042 0.02593961 7.554571e-39
0.70395064 0.46000817 0.026062638 7.2790631e-39
0.70676351 0.45986593 0.026185662 7.095032e-39
0.70957619 0.45972371 0.026308689 6.9106421e-39
0.7114194 0.45349815 0.029803801 6.6358531e-39
0.7142188 0.4533565 0.029926218 6.2663573e-39
0.71701831 0.453215 0.030048691 5.9908508e-39
0.71981776 0.45307344 0.03017116 5.7121311e-39
0.7217406 0.44771993 0.033181898 5.8036233e-39
0.72452861 0.44757894 0.033303827 5.8018311e-39
0.72731662 0.44743791 0.033425756 5.8007577e-39
0.73010474 0.44729698 0.033547744 5.7089264e-39
0.73289275 0.44715604 0.033669673 5.7085718e-39
0.73568082 0.44701502 0.033791665 5.6170979e-39
0.73846895 0.44687402 0.033913594 5.7085789e-39
0.74125695 0.44673297 0.03403559 5.7089362e-39
0.74404502 0.44659197 0.034157518 5.7085761e-39
0.74683315 0.44645101 0.034279451 5.6170979e-39
0.74962115 0.44630998 0.034401443 5.6167392e-39
0.75240922 0.44616908 0.034523368 5.5223757e-39
0.75519735 0.44602805 0.03464536 4.234511e-39
0.75798529 0.44588709 0.034767285 2.8559458e-39
0.77683663 0.52640671 -0.0097718453 2.2070409e-39
0.77857912 0.52018619 -0.0062811757 1.4935431e-39
0.78153062 0.52003706 -0.006152059 6.4634443e-39
0.78448212 0.51988775 -0.0060229348 1.1345103e-38
0.78743362 0.51973855 -0.0058938703 1.3748638e-38
0.79038513 0.5195893 -0.0057647442 1.6129893e-38
0.79333669 0.51944 -0.0056356201 1.3826462e-38
0.79498595 0.51322418 -0.0021490594 1.1527321e-38
0.79792416 0.51307565 -0.0020204904 1.0969109e-38
0.79953355 0.50686187 0.0014644125 1.0326959e-38
0.80245841 0.50671393 0.0015923707 1.0235105e-38
0.80402792 0.50050223 0.005075491 1.0141825e-38
0.80557084 0.49429187 0.0085574398 1.0233652e-38
0.80728453 0.48894882 0.011559117 1.0324768e-38
0.81017137 0.48880294 0.011685426 1.0600274e-38
0.81164968 0.48259574 0.015164512 1.0875058e-38
0.81452334 0.48245046 0.015290205 1.0965455e-38
0.81473142 0.47105131 0.021640457 1.1059443e-38
0.81758034 0.47090724 0.021765061 1.1428577e-38
0.82042927 0.47076312 0.02188972 1.1799503e-38
0.82327807 0.47061908 0.022014327 1.2076442e-38
0.82612705 0.47047502 0.022138931 1.2353755e-38
0.82747406 0.46427447 0.025612377 1.2813662e-38
0.83030969 0.46413115 0.025736425 1.3275714e-38
0.83314526 0.46398777 0.02586047 1.3645931e-38
0.83752251 0.46989876 0.022637405 1.4013989e-38
0.8388164 0.46370101 0.026108515 1.4289137e-38
0.84322017 0.46961063 0.022886608 1.4473883e-38
0.8460691 0.46946654 0.023011275 1.4748671e-38
0.84891802 0.46932259 0.023135871 1.4934495e-38
0.85337502 0.47522962 0.019916356 1.5027767e-38
0.85762703 0.48027074 0.017175682 1.5027407e-38
0.86213541 0.48617527 0.01395842 1.5211078e-38
0.8650223 0.48602915 0.014084673 1.5301117e-38
0.86933327 0.49106765 0.011346527 1.4931263e-38
0.87390625 0.4969686 0.0081320954 1.4470999e-38
0.87850583 0.50286847 0.0049188146 1.31835e-38
0.88313204 0.50876689 0.0017066458 1.1900352e-38
0.88778484 0.51466399 -0.0015043011 1.3187522e-38
0.89073634 0.51451474 -0.0013751751 1.4477942e-38
0.89542896 0.52040982 -0.0045843413 1.5865222e-38
0.90014839 0.52630341 -0.0077923955 1.7245253e-38
0.90312648 0.52615285 -0.0076621063 1.7061211e-38
0.90610456 0.52600229 -0.007531818 1.6784991e-38
0.90908271 0.52585167 -0.0074015884 1.6875755e-38
0.91206086 0.52570105 -0.007271301 1.6967948e-38
0.91503894 0.52555048 -0.0071410108 1.6876112e-38
0.91801703 0.52539998 -0.0070107831 1.6692442e-38
0.92099512 0.52524936 -0.0068804929 1.6600608e-38
0.92583418 0.53113717 -0.01008335 1.6417295e-38
0.92882562 0.53098595 -0.0099525033 1.6784635e-38
0.931817 0.53083456 -0.0098216599 1.7151616e-38
0.93480849 0.53068322 -0.0096908147 1.549678e-38
0.93588567 0.52449632 -0.0062291613 1.3738914e-38
0.93886381 0.52434576 -0.0060988711 1.096189e-38
0.94184196 0.52419519 -0.0059685828 8.111028e-39
0.94286591 0.51801109 -0.0025093919 7.5592821e-39
0.9458307 0.51786113 -0.0023796512 6.9142813e-39
1.0125852 0.52675033 -0.0062886691 6.0831179e-39
1.0178367 0.53261709 -0.0094734179 8.7719056e-39
1.0185682 0.52644789 -0.0060269879 1.3667616e-38
1.0215595 0.52629656 -0.0058961445 1.853346e-38
1.0245509 0.52614528 -0.0057652993 1.7796263e-38
1.0275424 0.52599406 -0.0056344019 1.6970103e-38
1.0305338 0.52584279 -0.0055035567 1.7246685e-38
1.0311853 0.51967722 -0.0020605428 1.7520384e-38
1.0365167 0.52554011 -0.0052418681 1.503292e-38
1.0371416 0.51937604 -0.001800024 1.2457601e-38
1.0401196 0.51922554 -0.0016697356 1.503619e-38
1.0430977 0.51907486 -0.0015394492 1.7612608e-38
1.0460758 0.51892436 -0.001409159 1.7520775e-38
1.049054 0.51877379 -0.0012789285 1.7337106e-38
1.0544651 0.52463257 -0.0044567538 1.7337108e-38
1.0574565 0.5244813 -0.0043259086 1.7337826e-38
1.0604479 0.52433008 -0.0041950727 1.733711e-38
1.0634392 0.5241788 -0.0040642256 1.724599e-38
1.0664308 0.52402747 -0.0039333822 1.724599e-38
1.0694221 0.52387631 -0.003802483 1.7154514e-38
1.0724136 0.52372503 -0.0036716396 1.7246708e-38
1.0728787 0.51756895 -0.0002367897 1.7240579e-38
1.075857 0.51741838 -0.00010650139 1.0059803e-38
1.0788351 0.51726782 2.378691e-05 2.8998597e-39
1.0818132 0.5171172 0.00015401561 9.7082378e-39
1.0847913 0.51696652 0.00028431322 1.6411537e-38
1.0903621 0.52281743 -0.0028865254 1.7151986e-38
1.0933534 0.52266616 -0.002755682 1.779374e-38
1.0963449 0.52251488 -0.0026248368 1.6873214e-38
1.0993364 0.5223636 -0.0024939971 1.5860513e-38
1.1023277 0.52221239 -0.0023631519 1.5675405e-38
1.1079783 0.52805889 -0.0055304179 1.5487046e-38
1.1083105 0.52190971 -0.0021014633 1.2723706e-38
1.111302 0.52175856 -0.0019705659 9.8753595e-39
1.1142935 0.52160728 -0.0018397225 9.1255989e-39
1.1172848 0.52145594 -0.0017088773 8.394868e-39
1.1202762 0.52130473 -0.0015780414 1.1068509e-38
1.1260066 0.52714723 -0.0047418633 1.3651419e-38
1.1290114 0.5269953 -0.004610409 1.4392239e-38
1.1320161 0.52684331 -0.004478951 1.5033983e-38
1.132242 0.52069968 -0.0010546083 1.1711736e-38
1.1352333 0.52054834 -0.00092376303 8.3062877e-39
1.1382247 0.52039707 -0.0007929178 7.6562618e-39
1.1591645 0.51933813 0.00012303982 4.0558945e-39
1.1683959 0.53201216 -0.0067899516 3.5956156e-39
1.1714158 0.53185934 -0.0066578081 3.0410447e-39
1.1681389 0.51888436 0.00051556807 1.9404831e-39
1.1711303 0.5187332 0.0006464636 8.4635905e-40
1.1741217 0.51858193 0.00077730883 3.5095982e-39
1.1771132 0.51843059 0.00090815406 6.0978638e-39
1.1865153 0.53109586 -0.005997357 1.0339887e-38
1.1861012 0.52410841 -0.0021131756 1.4566165e-38
1.1925554 0.53079057 -0.0057331445 1.6418354e-38
1.1955752 0.53063768 -0.0056010606 1.8154611e-38
1.2016401 0.53646338 -0.0087502226 1.5856922e-38
1.2016151 0.53033233 -0.0053368481 1.3560695e-38
1.204635 0.5301795 -0.0052047623 1.2635902e-38
1.207655 0.53002685 -0.0050726263 1.1626763e-38
1.2106749 0.52987421 -0.0049405498 1.0704079e-38
0.0031870864 0.4878675 -0.0035817185 1.4017336e-38
0.0036038086 0.49397203 -0.0069893943 1.401733e-38
0.0064165369 0.49382976 -0.0068663703 1.4017331e-38
0.0072097965 0.4990401 -0.0097682131 1.3834021e-38
0.012042161 0.49354535 -0.006620259 1.3742185e-38
0.014854833 0.49340308 -0.0064972313 1.3834021e-38
0.017667685 0.49326083 -0.0063742055 1.3834015e-38
0.018506449 0.49846891 -0.0092740655 1.3741815e-38
0.021330606 0.49832615 -0.0091505582 1.3741091e-38
0.024154827 0.49818337 -0.0090269931 1.3557771e-38
0.02891871 0.49269187 -0.0058820387 1.3463443e-38
0.031731486 0.49254975 -0.0057590222 1.3095042e-38
0.032627329 0.49775481 -0.008656403 1.281342e-38
0.037357002 0.49226522 -0.0055129705 1.2632959e-38
0.040169727 0.49212301 -0.0053899428 1.2541872e-38
0.045179013 0.48574412 -0.0017448748 1.2358591e-38
0.049849916 0.48025766 0.0013958337 1.2175235e-38
0.052637909 0.48011658 0.0015177624 1.2449262e-38
0.05357746 0.4853195 -0.0013775164 1.2722647e-38
0.056377016 0.48517776 -0.0012550978 1.3556729e-38
0.059176426 0.48503628 -0.0011326289 1.4380753e-38
0.061975852 0.48489475 -0.0010101581 1.4661654e-38
0.064775325 0.48475325 -0.00088774879 1.4847482e-38
0.06548468 0.49084294 -0.0042825965 1.4849278e-38
0.068297476 0.49070066 -0.0041595707 1.4942903e-38
0.069341525 0.49589834 -0.0070504462 1.4848192e-38
0.072165698 0.49575546 -0.0069268728 1.4756004e-38
0.074989863 0.49561259 -0.0068033664 1.4663096e-38
0.077814072 0.49546987 -0.0066797985 1.4662691e-38
0.078915149 0.50066459 -0.009568138 1.4845598e-38
0.08175081 0.50052124 -0.0094440896 1.5027875e-38
0.084586173 0.50037777 -0.0093200356 1.4941102e-38
0.087421834 0.50023443 -0.0091960486 1.4941817e-38
0.090257443 0.50009096 -0.0090719946 1.4941097e-38
0.093092978 0.49994761 -0.0089479461 1.5031856e-38
0.09592858 0.49980432 -0.0088239592 1.4847825e-38
0.098764189 0.49966085 -0.0086999023 1.4663075e-38
0.099695861 0.50573927 -0.012085076 1.4480477e-38
0.10443527 0.49937415 -0.0084518092 1.4390074e-38
0.10727094 0.49923059 -0.0083278129 1.4204605e-38
0.11010648 0.49908724 -0.0082037663 1.4112048e-38
0.11294201 0.49894395 -0.0080797179 1.4019131e-38
0.11577763 0.49880046 -0.0079556638 1.3925855e-38
0.11861317 0.49865714 -0.0078316741 1.3833295e-38
0.12144876 0.49851376 -0.0077076275 1.3739657e-38
0.12428425 0.49837029 -0.0075835735 1.3371588e-38
0.12711991 0.498227 -0.0074595269 1.3003523e-38
0.1299555 0.49808365 -0.007335538 1.2636174e-38
0.13279106 0.49794018 -0.0072114822 1.2358509e-38
0.1356266 0.4977968 -0.0070874356 1.1990444e-38
0.13846226 0.49765348 -0.0069633881 1.1712062e-38
0.1412978 0.49751005 -0.0068393918 1.1343639e-38
0.14413334 0.4973667 -0.0067153452 1.1066696e-38
0.14696896 0.49722323 -0.0065912912 1.0697916e-38
0.14980449 0.49707988 -0.0064673023 1.0420976e-38
0.15264009 0.49693653 -0.0063432558 1.0237306e-38
0.15547565 0.49679303 -0.0062191999 1.0145112e-38
0.15667345 0.50285804 -0.0095927762 1.0052918e-38
0.16114676 0.49650633 -0.0059711663 1.0052559e-38
0.1639823 0.49636292 -0.0058471086 9.9607224e-39
0.16681787 0.49621955 -0.005723062 9.960721e-39
0.16965351 0.49607623 -0.0055990135 9.8685239e-39
0.17248906 0.49593273 -0.0054750191 9.8685239e-39
0.17532462 0.49578941 -0.0053509707 9.7763297e-39
0.17816025 0.49564603 -0.0052269241 9.6837753e-39
0.18099578 0.49550259 -0.0051028682 9.5926559e-39
0.18383144 0.49535921 -0.0049788812 9.5008232e-39
0.18666694 0.49521589 -0.0048548346 9.3175123e-39
0.19078083 0.48975742 -0.0017384095 9.1342043e-39
0.19360512 0.48961467 -0.0016148435 9.2256839e-39
0.19642927 0.48947185 -0.0014913371 9.3175222e-39
0.19925338 0.48932904 -0.0013677673 9.4093591e-39
0.20207761 0.48918623 -0.0012442591 9.5015533e-39
0.23319629 0.3659775 0.068145812 9.9600133e-39
0.23575622 0.36584803 0.068257794 1.0509563e-38
0.23731744 0.37014458 0.065878965 8.2071893e-39
0.23988694 0.3700147 0.065991424 6.0002563e-39
0.24245647 0.3698847 0.066103756 5.8090407e-39
0.2450259 0.36975485 0.066216208 5.7139654e-39
0.24759547 0.36962479 0.0663286 4.9789115e-39
0.25016496 0.36949497 0.066441 4.3349799e-39
0.25273442 0.36936498 0.066553399 3.7821662e-39
0.25530395 0.3692351 0.066665784 3.3204706e-39
0.25676611 0.37441152 0.063793227 2.6743865e-39
0.25934702 0.37428096 0.063906163 2.0272291e-39
0.2619279 0.37415043 0.064019047 1.8442713e-39
0.26450887 0.37402001 0.064131916 1.568046e-39
0.26708975 0.37388948 0.064244792 1.5676844e-39
0.26879543 0.37817854 0.061872344 1.5673243e-39
0.27225155 0.37362847 0.064470612 1.5669642e-39
0.27483243 0.37349793 0.064583488 1.5666068e-39
0.27656665 0.37778559 0.062212273 1.566967e-39
0.27915701 0.37765452 0.062325627 1.4747713e-39
0.28174743 0.37752363 0.062438909 1.4747699e-39
0.28433782 0.37739256 0.062552206 1.3829358e-39
0.28692824 0.37726167 0.062665552 1.4751315e-39
0.28951865 0.37713063 0.062778838 1.5673257e-39
0.29210901 0.37699959 0.062892132 1.4754902e-39
0.29469946 0.37686867 0.063005477 1.3836533e-39
0.29651913 0.38115194 0.060637977 1.382933e-39
0.29911909 0.38102052 0.060751732 1.3825757e-39
0.30247071 0.37647566 0.06334541 1.3829344e-39
0.30506107 0.37634462 0.063458703 1.3829344e-39
0.30691883 0.38062614 0.061092895 1.3829344e-39
0.30951869 0.38049459 0.061206602 1.3829344e-39
0.31211862 0.38036314 0.061320353 1.4747699e-39
0.31471848 0.38023165 0.061434057 1.4747713e-39
0.31731844 0.38010019 0.06154782 1.566967e-39
0.31991836 0.37996867 0.061661523 1.6584465e-39
0.32251826 0.37983721 0.061775222 2.027585e-39
0.32431874 0.38499662 0.058917467 2.3967276e-39
0.32693005 0.38486466 0.059031706 2.6733159e-39
0.32954136 0.38473257 0.059145894 2.9506189e-39
0.33215266 0.38460052 0.059260134 3.0424558e-39
0.33476397 0.38446856 0.059374373 3.0424558e-39
0.33737528 0.38433647 0.059488561 3.0424558e-39
0.33998653 0.38420439 0.059602808 3.13465e-39
0.3425979 0.38407236 0.059717048 3.0428145e-39
0.34520927 0.38394031 0.059831228 3.0424558e-39
0.34782055 0.38380823 0.059945475 3.0424544e-39
0.35043186 0.38367626 0.060059715 3.0420957e-39
0.35304317 0.38354418 0.060173966 3.0424544e-39
0.35565448 0.38341209 0.060288146 3.0424558e-39
0.35772315 0.3876828 0.057931606 3.0424558e-39
0.36034396 0.38755032 0.058046196 3.0424558e-39
0.36296478 0.38741773 0.05816086 3.0424558e-39
0.36558557 0.38728529 0.05827551 3.0424558e-39
0.36820638 0.3871527 0.058390167 3.0424558e-39
0.3708272 0.38702023 0.05850476 3.0420971e-39
0.37344801 0.38688764 0.058619421 3.1342899e-39
0.3760688 0.38675517 0.058734067 3.1342913e-39
0.37868965 0.38662261 0.058848727 3.2264855e-39
0.38076189 0.39176837 0.056002773 3.2268456e-39
0.38393125 0.38635755 0.059077978 3.2268456e-39
0.38602635 0.39150208 0.056233112 3.2264869e-39
0.38865858 0.39136896 0.056348257 3.1350087e-39
0.39129078 0.39123598 0.056463383 3.1342913e-39
0.39351335 0.39549884 0.054113507 3.13465e-39
0.39615512 0.39536524 0.054229055 3.1342899e-39
0.3987968 0.39523172 0.054344606 3.1342885e-39
0.40143853 0.39509806 0.054460157 3.1342913e-39
0.40408024 0.39496446 0.054575715 3.1346514e-39
0.40628746 0.40010327 0.051735777 3.1346514e-39
0.40894055 0.3999691 0.051851865 3.1346514e-39
0.41159374 0.39983496 0.051967908 3.1342927e-39
0.4142468 0.39970073 0.052083936 3.1342927e-39
0.41689989 0.39956659 0.052200031 3.0424572e-39
0.41955304 0.39943248 0.052316058 3.1346514e-39
0.42220622 0.39929834 0.052432153 3.1346528e-39
0.42485929 0.39916411 0.052548181 3.2264883e-39
0.42716914 0.40429777 0.049712718 3.2264883e-39
0.42983365 0.40416309 0.049829289 3.226847e-39
0.43249819 0.40402836 0.049945865 3.1350115e-39
0.43516272 0.40389359 0.050062377 3.1350101e-39
0.43782726 0.40375882 0.050178949 3.1350115e-39
0.44049174 0.40362415 0.050295468 3.1350115e-39
0.44315627 0.40348938 0.05041204 3.226847e-39
0.44582081 0.40335467 0.050528616 3.1346514e-39
0.44827527 0.40760589 0.048188884 3.13465e-39
0.45094928 0.40747067 0.048305869 3.042453e-39
0.45362335 0.4073354 0.048422854 3.0424544e-39
0.45629737 0.40720022 0.048539784 3.0424558e-39
0.45897138 0.40706494 0.048656769 3.0428159e-39
0.46164542 0.40692976 0.048773754 3.0428159e-39
0.4643195 0.40679461 0.048890676 3.13465e-39
0.46699354 0.40665936 0.049007662 3.1346472e-39
0.46950671 0.41178271 0.046181049 3.1342913e-39
0.47219208 0.41164693 0.046298519 3.1346514e-39
0.47487751 0.41151112 0.046415988 3.1346514e-39
0.47768956 0.40611845 0.049475554 3.2268442e-39
0.48024839 0.41123956 0.04665092 3.2272044e-39
0.48293382 0.41110379 0.04676839 3.2272058e-39
0.48561931 0.41096798 0.046885855 3.2268456e-39
0.4883047 0.41083226 0.047003325 3.2268442e-39
0.49099007 0.4106963 0.047120798 3.2268456e-39
0.49367556 0.41056052 0.047238272 3.226847e-39
0.49631414 0.41567755 0.044417199 3.3186839e-39
0.49901101 0.41554114 0.044535156 3.3190427e-39
0.50170779 0.4154048 0.044653106 3.3190427e-39
0.50440466 0.41526842 0.044771109 3.3190427e-39
0.50710154 0.41513199 0.044889066 3.3194014e-39
0.50979835 0.41499567 0.045007017 3.1357304e-39
0.51249516 0.41485932 0.045124967 3.0435376e-39
0.51519203 0.41472286 0.045242984 3.0446152e-39
0.51788884 0.41458651 0.04536093 3.1364507e-39
0.52058572 0.41445023 0.045478877 3.3204804e-39
0.52328259 0.41431376 0.045596838 3.5037927e-39
0.52597928 0.41417742 0.045714784 3.4119558e-39
0.52876621 0.41928703 0.042900223 3.3194e-39
0.53147441 0.41915011 0.043018714 3.4105138e-39
0.5342955 0.42425781 0.040205542 3.5941764e-39
0.53701514 0.42412046 0.040324513 3.5938093e-39
0.53973478 0.42398286 0.040443491 3.5941778e-39
0.54245448 0.42384526 0.040562466 3.4105152e-39
0.54517406 0.42370775 0.040681388 3.2279246e-39
0.5478937 0.42357033 0.040800359 3.1353759e-39
0.55043209 0.41819146 0.04384793 3.0442579e-39
0.55314034 0.41805443 0.043966427 2.859868e-39
0.5558486 0.41791755 0.044084858 2.76875e-39
0.55855685 0.41778055 0.044203356 2.859868e-39
0.56126505 0.41764364 0.044321787 2.9531412e-39
0.56421155 0.42274514 0.041514155 2.4006961e-39
0.56718087 0.4278453 0.038707554 1.8507593e-39
0.5699119 0.42770725 0.038827013 2.0333541e-39
0.57264292 0.42756918 0.038946472 2.1251854e-39
0.57537401 0.42743108 0.039065931 2.0333443e-39
0.57810503 0.42729297 0.03918539 1.9411571e-39
0.58083606 0.42715481 0.039304849 2.4932519e-39
0.58356708 0.42701674 0.039424308 3.0435474e-39
0.58629811 0.42687863 0.039543767 3.7796663e-39
0.58902925 0.4267405 0.039663222 4.5165027e-39
0.59176028 0.42660242 0.039782681 4.7959552e-39
0.5944913 0.42646438 0.039902199 5.074333e-39
0.59759742 0.43155771 0.037101563 4.4300496e-39
0.60033989 0.43141907 0.037221503 3.8765773e-39
0.60726023 0.48619866 0.0066909725 7.015179e-39
0.61012244 0.48605388 0.0068161907 1.0146518e-38
0.6129846 0.48590922 0.0069414014 8.2082501e-39
0.61584675 0.48576444 0.0070666214 6.3611047e-39
0.61767417 0.47342104 0.01399839 4.1426699e-39
0.62050974 0.47327754 0.014122385 2.0236473e-39
0.62754214 0.52017593 -0.011998464 2.5818434e-39
0.62570316 0.46776456 0.017286055 3.1339452e-39
0.63284791 0.51378214 -0.0083404342 2.5789987e-39
0.63577276 0.51363415 -0.0082125338 2.0218817e-39
0.63810039 0.50739086 -0.0046847882 3.7810984e-39
0.64101201 0.50724369 -0.0045574447 5.5310301e-39
0.64329976 0.50100261 -0.001031491 5.3534926e-39
0.64501482 0.48953992 0.005405982 5.2760148e-39
0.64733082 0.48417234 0.008443757 6.0996714e-39
0.64952922 0.47793567 0.011965807 7.0183585e-39
0.65237802 0.47779167 0.012090468 7.4735633e-39
0.6545366 0.4715569 0.015610806 8.0277951e-39
0.65737218 0.47141364 0.015734851 7.8408857e-39
0.66020775 0.47127014 0.015858911 7.6550623e-39
0.66304332 0.47112682 0.015982956 7.2801855e-39
0.66587889 0.47098345 0.016106945 7.0043175e-39
0.66806573 0.46562248 0.019139085 6.8184913e-39
0.67088985 0.46547958 0.019262657 6.6341057e-39
0.67371398 0.4653368 0.019386165 6.6348245e-39
0.67585528 0.4599781 0.022416383 6.7273789e-39
0.67866796 0.45983583 0.022539407 7.0010931e-39
0.68148082 0.45969355 0.022662435 7.2762395e-39
0.68429351 0.45955136 0.022785459 7.3677148e-39
0.68710625 0.45940912 0.022908546 7.5531725e-39
0.68991911 0.45926684 0.023031574 7.645717e-39
0.69185519 0.45304349 0.026542168 7.7379113e-39
0.69465464 0.45290193 0.026664577 7.73827e-39
0.69745415 0.45276028 0.026787058 7.8300929e-39
0.70025361 0.45261878 0.026909526 7.7396783e-39
0.70305312 0.45247722 0.027031936 7.7393182e-39
0.70585257 0.45233566 0.027154416 7.4627341e-39
0.70865202 0.45219406 0.027276885 7.2776282e-39
0.71145147 0.45205253 0.027399357 6.9110022e-39
0.71425086 0.45191091 0.027521774 6.5429414e-39
0.71705037 0.45176938 0.027644243 6.3581914e-39
0.71898437 0.44642115 0.030665226 6.1720261e-39
0.72177255 0.44628021 0.030787211 6.0794885e-39
0.72456056 0.44613928 0.030909143 6.0766215e-39
0.72734857 0.44599828 0.031031132 5.8929533e-39
0.73013669 0.44585735 0.03115306 5.7082075e-39
0.73292476 0.44571632 0.031275053 5.6167321e-39
0.73571277 0.44557539 0.031396981 5.525261e-39
0.73850083 0.44543439 0.03151897 5.5252652e-39
0.74128896 0.44529331 0.031640906 5.6174552e-39
0.74407697 0.4451524 0.031762838 5.617451e-39
0.74686503 0.44501138 0.031884827 5.617451e-39
0.7496531 0.44487035 0.032006755 5.7096452e-39
0.75244123 0.44472942 0.032128748 5.7100082e-39
0.75522923 0.44458842 0.032250673 5.0668038e-39
0.75801724 0.44444746 0.032372605 4.5172131e-39
0.76080537 0.44430646 0.032494597 4.1430426e-39
0.76359344 0.4441655 0.032616522 3.8582231e-39
0.76638144 0.44402453 0.032738514 6.1745723e-39
0.78326678 0.51230133 -0.0051867543 8.4805882e-39
0.78620499 0.51215267 -0.0050582374 1.0145908e-38
0.7891432 0.5120042 -0.0049296683 1.182156e-38
0.79208142 0.5118556 -0.0048011607 1.2917859e-38
0.79501963 0.51170695 -0.0046726419 1.3926197e-38
0.79664212 0.50549942 -0.0011757044 1.3275038e-38
0.7995671 0.50535148 -0.0010478022 1.2528488e-38
0.80114973 0.49914598 0.0024473583 1.0876498e-38
0.80270576 0.49294186 0.0059412969 9.2205887e-39
0.80443072 0.48760417 0.008953278 9.5882881e-39
0.80731761 0.48745826 0.0090795858 9.9563461e-39
0.81020451 0.48731214 0.0092058415 1.0324761e-38
0.81168258 0.48111191 0.012696414 1.0783933e-38
0.81455624 0.48096657 0.012822111 1.106051e-38
0.81619948 0.47563314 0.015830461 1.1244902e-38
0.81761301 0.46943611 0.019318223 1.1614399e-38
0.82046187 0.46929201 0.019442827 1.1984259e-38
0.82331067 0.46914795 0.01956743 1.2261206e-38
0.82615966 0.46900389 0.01969203 1.2538516e-38
0.82900852 0.46885994 0.01981663 1.2907301e-38
0.83034217 0.46266687 0.023300957 1.327644e-38
0.83470625 0.46857184 0.020065892 1.3737412e-38
0.83755511 0.46842772 0.020190496 1.4105463e-38
0.84040403 0.46828371 0.020315103 1.4290202e-38
0.84482127 0.47418585 0.017082438 1.4566785e-38
0.84768349 0.47404107 0.017207652 1.4750813e-38
0.85054564 0.47389638 0.017332863 1.50274e-38
0.8547864 0.47893232 0.014581884 1.511924e-38
0.8592816 0.4848305 0.011352587 1.5211079e-38
0.86216849 0.48468453 0.011478893 1.5485155e-38
0.86646819 0.48971757 0.0087303845 1.5758146e-38
0.87102801 0.49561244 0.0055039646 1.4195144e-38
0.87393951 0.49546522 0.0056313099 1.2725783e-38
0.87853932 0.50135809 0.0024066633 1.2908743e-38
0.88316572 0.50724971 -0.00081693847 1.3094267e-38
0.88781863 0.51313996 -0.0040393183 1.4384327e-38
0.89077014 0.51299065 -0.0039101923 1.5670055e-38
0.89546299 0.51887888 -0.0071308501 1.6415172e-38
0.89842778 0.51872903 -0.0070011187 1.7247058e-38
0.90139258 0.51857901 -0.0068714386 1.7061221e-38
0.90435743 0.51842916 -0.006741764 1.6968309e-38
0.90732223 0.51827925 -0.006612082 1.6968309e-38
0.91028702 0.51812929 -0.0064824102 1.7060143e-38
0.91325188 0.51797932 -0.006352731 1.6876112e-38
0.91621667 0.51782948 -0.0062229997 1.6783562e-38
0.91918147 0.51767951 -0.0060933148 1.6692088e-38
0.92400742 0.52356094 -0.0093081472 1.6508414e-38
0.9269855 0.52341026 -0.0091778496 1.6784635e-38
0.92996359 0.5232597 -0.0090475604 1.6969032e-38
0.93294173 0.52310908 -0.0089173317 1.5772309e-38
0.93591982 0.52295852 -0.0087870425 1.4482948e-38
0.93889791 0.52280796 -0.0086567551 1.087761e-38
0.94187599 0.52265733 -0.0085265245 7.2837995e-39
0.94289988 0.51648015 -0.005055842 7.1000991e-39
0.94586474 0.5163303 -0.0049261684 7.0075489e-39
1.0126195 0.52520573 -0.0088579841 4.5226011e-39
1.0156109 0.5250544 -0.0087271389 4.9025996e-39
1.0186024 0.52490306 -0.0085962955 1.1726507e-38
1.0215938 0.5247519 -0.0084654596 1.8441616e-38
1.0222851 0.51859128 -0.0050092423 1.7704777e-38
1.0252632 0.51844072 -0.0048789522 1.6968655e-38
1.0282414 0.51829016 -0.0047487216 1.7337788e-38
1.0312194 0.51813942 -0.0046184259 1.7615084e-38
1.0341976 0.51798886 -0.0044881376 1.5402776e-38
1.0371757 0.51783836 -0.004357907 1.3095416e-38
1.0401537 0.51768768 -0.0042276187 1.4849624e-38
1.0431318 0.51753712 -0.0040973285 1.6605269e-38
1.04611 0.5173865 -0.0039671017 1.706302e-38
1.0490882 0.51723593 -0.0038368134 1.752113e-38
1.0520663 0.51708537 -0.0037065828 1.743002e-38
1.0550444 0.51693475 -0.0035762927 1.7430739e-38
1.0580224 0.51678407 -0.0034459988 1.7338187e-38
1.0610005 0.51663351 -0.0033157086 1.7246711e-38
1.0639786 0.51648295 -0.003185478 1.7154515e-38
1.0669566 0.51633227 -0.0030551897 1.7154162e-38
1.0674218 0.51018339 0.00039101485 1.7430391e-38
1.0703868 0.51003355 0.00052074809 1.7796953e-38
1.0733515 0.50988358 0.00065042917 1.1348316e-38
1.0763164 0.50973368 0.0007801028 4.9048193e-39
1.0792811 0.50958371 0.00090978201 1.0804586e-38
1.0848254 0.51542872 -0.002273568 1.6787525e-38
1.0878035 0.51527816 -0.0021433393 1.7245626e-38
1.0907817 0.5151276 -0.0020130528 1.7704429e-38
1.0963793 0.52097023 -0.0051941508 1.7334201e-38
1.0993706 0.52081883 -0.0050633056 1.6962198e-38
1.1023619 0.52066767 -0.0049324697 1.6503382e-38
1.1053534 0.52051634 -0.0048016245 1.5949069e-38
1.1056722 0.51437461 -0.0013617268 1.3921082e-38
1.1113364 0.52021384 -0.00453988 1.1889967e-38
1.1116284 0.51407337 -0.0011011409 9.6830733e-39
1.1146066 0.51392281 -0.00097091217 7.5672317e-39
1.1175848 0.51377219 -0.00084062386 9.0401477e-39
1.1178237 0.50763476 0.0025957068 1.0523233e-38
1.1207885 0.50748485 0.0027253805 1.2367202e-38
1.1265191 0.51332051 -0.0004498167 1.4214631e-38
1.1294971 0.51316988 -0.00031952839 1.1157831e-38
1.1352676 0.51900369 -0.003493079 8.2018686e-39
1.1382591 0.51885247 -0.0033622338 8.3073275e-39
1.1591989 0.51779354 -0.0024462743 2.217049e-39
1.1621904 0.51764232 -0.0023154384 2.0312228e-39
1.1622564 0.51151323 0.0011134269 1.8515034e-39
1.1652346 0.51136267 0.0012437152 1.9404733e-39
1.1682127 0.51121211 0.0013739457 2.1187198e-39
1.1711907 0.51106149 0.001504234 3.8703653e-39
1.1741689 0.51091093 0.0016344627 5.5180681e-39
1.1831307 0.52270883 -0.004825375 6.4587079e-39
1.1861354 0.52255696 -0.0046939207 7.4847807e-39
1.1861217 0.51643217 -0.0012686336 8.587981e-39
1.1891131 0.51628089 -0.0011377884 9.8047957e-39
1.1951495 0.5221011 -0.0042996155 1.1540337e-38
1.1981543 0.52194905 -0.0041681537 1.3293447e-38
1.201159 0.52179718 -0.0040367628 1.309828e-38
1.2010788 0.51567578 -0.00061435718 1.2990978e-38
1.2071686 0.52149338 -0.003773856 9.2152792e-39
1.2070615 0.51537329 -0.00035267416 5.5429846e-39
0.00041966885 0.48656353 -0.0061086426 1.4017336e-38
0.0032192059 0.486422 -0.0059861736 1.4017331e-38
0.0060185753 0.48628038 -0.0058636954 1.4017687e-38
0.0088180564 0.48613885 -0.0057412842 1.4017686e-38
0.0092615895 0.49223512 -0.0091592204 1.3926206e-38
0.014417086 0.4858557 -0.0054963371 1.3834015e-38
0.017216504 0.48571411 -0.0053739259 1.3834378e-38
0.020015921 0.48557264 -0.0052514588 1.3742541e-38
0.020512626 0.49166611 -0.0086670574 1.3834018e-38
0.02332541 0.49152392 -0.0085440325 1.383437e-38
0.028414309 0.48514795 -0.0048840987 1.3745398e-38
0.031213786 0.48500645 -0.0047616297 1.3559588e-38
0.034013215 0.48486477 -0.0046391515 1.3377005e-38
0.034576427 0.49095505 -0.0080518769 1.3188665e-38
0.037389219 0.49081278 -0.0079288483 1.2821678e-38
0.042411603 0.48444012 -0.0042717932 1.2451827e-38
0.04521108 0.48429859 -0.004149382 1.2173813e-38
0.049881823 0.47881791 -0.00099884998 1.1897572e-38
0.05081011 0.48401543 -0.003904433 1.2721565e-38
0.053609528 0.48387387 -0.0037819622 1.3555644e-38
0.056409013 0.48373231 -0.0036595529 1.4576622e-38
0.059208497 0.48359072 -0.0035370747 1.5491394e-38
0.062007915 0.48344922 -0.0034146039 1.5309521e-38
0.064807333 0.48330769 -0.0032921927 1.5032942e-38
0.065516904 0.4893904 -0.0066984771 1.4941828e-38
0.068329677 0.48924822 -0.0065754494 1.4758155e-38
0.071142413 0.48910594 -0.0064524254 1.484927e-38
0.073955327 0.48896369 -0.0063293381 1.484963e-38
0.076767996 0.48882145 -0.0062063085 1.4759232e-38
0.0778464 0.49401149 -0.0091055008 1.4665215e-38
0.080670506 0.49386871 -0.0089819338 1.4849217e-38
0.083494782 0.4937259 -0.0088584265 1.5031476e-38
0.08631894 0.49358314 -0.0087348605 1.5033653e-38
0.089143112 0.49344033 -0.0086113531 1.5032935e-38
0.091967285 0.49329752 -0.0084878476 1.5031859e-38
0.094791442 0.4931547 -0.0083642807 1.4939663e-38
0.0976156 0.49301195 -0.0082407733 1.484675e-38
0.10043978 0.49286902 -0.0081171989 1.4663434e-38
0.10326393 0.49272621 -0.0079936925 1.4571953e-38
0.1060881 0.49258345 -0.0078701256 1.4387919e-38
0.10891233 0.49244064 -0.0077466182 1.4387197e-38
0.11173648 0.49229783 -0.0076230532 1.429536e-38
0.11456065 0.49215502 -0.0074995458 1.4203525e-38
0.11738482 0.49201223 -0.0073759789 1.4019489e-38
0.12020896 0.49186948 -0.0072524706 1.4019125e-38
0.12303315 0.49172655 -0.0071288981 1.4016606e-38
0.12585732 0.49158373 -0.0070053907 1.3555985e-38
0.12868154 0.49144092 -0.0068818834 1.3096799e-38
0.13150564 0.49129817 -0.0067583183 1.2913119e-38
0.1328236 0.49647605 -0.0096469549 1.2727649e-38
0.13565914 0.49633256 -0.0095228991 1.2451061e-38
0.13997819 0.49086976 -0.0063877357 1.2172678e-38
0.14133027 0.49604589 -0.0092748655 1.1804611e-38
0.14416581 0.49590242 -0.0091508096 1.134292e-38
0.14700136 0.49575907 -0.009026763 1.0974139e-38
0.15127479 0.49029842 -0.0058935815 1.0514245e-38
0.1526725 0.49547225 -0.0087787192 1.0237665e-38
0.15692317 0.49001288 -0.0056465073 9.9617986e-39
0.15834364 0.49518561 -0.0085306261 9.9614398e-39
0.16257149 0.48972732 -0.005399433 9.9610811e-39
0.16539568 0.48958445 -0.0052759266 9.9614398e-39
0.16821986 0.48944157 -0.0051523512 9.8692456e-39
0.17104402 0.48929879 -0.0050288467 9.8685295e-39
0.17386819 0.48915598 -0.0049052788 9.7763325e-39
0.17669235 0.48901317 -0.0047817724 9.775971e-39
0.17951655 0.48887035 -0.0046582064 9.6844914e-39
0.18234074 0.4887276 -0.0045346981 9.5930132e-39
0.18516484 0.48858479 -0.0044111321 9.5008204e-39
0.18798912 0.48844188 -0.0042876182 9.4089849e-39
0.19081321 0.48829907 -0.0041640522 9.2256755e-39
0.19363737 0.48815632 -0.0040405439 9.3175137e-39
0.19771697 0.48270544 -0.00091573689 9.3175166e-39
0.19928576 0.48787069 -0.0037934715 9.4089961e-39
0.20334251 0.48242089 -0.00066968519 9.5008288e-39
0.23322558 0.36465564 0.065947011 9.9600049e-39
0.23578554 0.36452627 0.066058993 1.0324103e-38
0.23734681 0.36881784 0.063672066 8.1153734e-39
0.2399164 0.36868784 0.063784473 5.906274e-39
0.2424859 0.36855796 0.063896857 5.8029325e-39
